ply
format ascii 1.0
element vertex 848
property float x
property float y
property float z
end_header
-9918.044921875 -7386.9326171875 7258.6064453125
-1968.17724609375 -1372.9844970703125 1394.728759765625
-377.644287109375 -103.85457611083984 193.96328735351562
-459.28448486328125 -129.14364624023438 238.74139404296875
-3357.223388671875 -1572.7462158203125 2047.462646484375
1251.764404296875 489.4124755859375 -666.609375
5524.2802734375 4018.772216796875 -4055.29248046875
4815.25146484375 3501.845458984375 -3534.5576171875
-4333.66845703125 -1228.2015380859375 2119.481201171875
-2598.03125 -1397.3677978515625 1648.26611328125
-308.06689453125 -81.26412963867188 159.02859497070312
-363.5401611328125 -90.46357727050781 186.1637725830078
-403.5184631347656 -98.01583099365234 200.1375732421875
1863.0543212890625 592.8684692382812 -1030.2786865234375
-6345.69775390625 -2075.32275390625 3182.042724609375
-386.9801330566406 -93.99828338623047 191.83302307128906
-4068.860595703125 -1603.8330078125 2221.438232421875
-329.0748596191406 -81.27288818359375 164.43272399902344
-2577.986083984375 -1388.4908447265625 1636.2672119140625
-392.7825622558594 -95.56173706054688 194.79205322265625
-3361.849365234375 -2508.25390625 2460.983642578125
-447.82281494140625 -110.28382110595703 224.24118041992188
-4987.8984375 -3634.45556640625 3664.07470703125
197.27203369140625 122.75138092041016 -153.21658325195312
2469.908203125 1815.8760986328125 -1807.5162353515625
-443.135498046875 -109.38002014160156 222.03201293945312
3154.134521484375 1029.7965087890625 -1585.7528076171875
-460.3552551269531 -113.11127471923828 230.7716522216797
892.1524047851562 296.3082275390625 -503.2992858886719
-343.5372314453125 -84.8017578125 171.76849365234375
2755.321533203125 2143.020751953125 -2118.3173828125
1258.895263671875 418.6763000488281 -709.4779052734375
392.85003662109375 135.26962280273438 -226.15570068359375
-2022.2435302734375 -1470.480712890625 1487.9476318359375
-22812.640625 -16926.583984375 16713.775390625
1541.2017822265625 902.6356811523438 -1062.927978515625
-375.22216796875 -92.78450775146484 187.71121215820312
154.63601684570312 89.13509368896484 -116.69703674316406
1536.1312255859375 559.98388671875 -789.7794799804688
-520.7716064453125 -146.38783264160156 271.0323791503906
153.30233764648438 88.29948425292969 -115.69624328613281
-466.13946533203125 -115.43370056152344 234.2252655029297
1243.2420654296875 646.9955444335938 -772.9938354492188
11642.8017578125 4198.94970703125 -5954.84326171875
-328.0949401855469 -92.31529998779297 169.9608612060547
-4654.87841796875 -3868.234375 3661.72705078125
3762.792724609375 2746.7763671875 -2763.32666015625
-440.7339172363281 -124.07367706298828 229.15541076660156
163.79544067382812 100.82108306884766 -126.93235778808594
593.31005859375 206.91543579101562 -342.01751708984375
1681.6859130859375 552.8273315429688 -942.5192260742188
2747.036376953125 1003.2037353515625 -1409.53662109375
-548.2279052734375 -145.1516571044922 281.7778625488281
172.84957885742188 106.78517150878906 -134.05612182617188
-363.4298400878906 -93.41153717041016 185.80703735351562
3888.49755859375 2863.853515625 -2846.241943359375
-9016.560546875 -2553.703125 4406.78955078125
1791.3485107421875 653.6551513671875 -920.1165161132812
-320.635009765625 -78.7641830444336 160.1328887939453
2513.51904296875 827.6715698242188 -1407.835205078125
858.2489624023438 291.50927734375 -485.66387939453125
1083.8846435546875 394.09149169921875 -557.9008178710938
632.7711181640625 216.95489501953125 -362.40679931640625
6886.2548828125 2706.955810546875 -3657.86279296875
-1771.6085205078125 -613.5574951171875 948.8719482421875
-316.4139709472656 -88.35972595214844 163.85040283203125
-454.10888671875 -125.67559051513672 235.5626983642578
14158.318359375 5569.0478515625 -7518.568359375
20.600439071655273 5.3905930519104 -13.244342803955078
-595.9530639648438 -206.1055908203125 331.7883605957031
-433.5712585449219 -145.66891479492188 233.47325134277344
-408.9430847167969 -126.99717712402344 213.16110229492188
-486.647705078125 -159.7053680419922 242.14813232421875
-222.81405639648438 -61.84139633178711 115.12002563476562
-632.1212158203125 -207.2760772705078 315.5800476074219
-303.12457275390625 -84.36030578613281 154.76573181152344
-381.2117614746094 -118.3912124633789 198.5609588623047
-486.5215148925781 -160.02813720703125 242.03387451171875
-223.145751953125 -62.71590805053711 115.49520111083984
-501.1678161621094 -173.39199829101562 278.7750244140625
-438.79888916015625 -144.3473663330078 234.38250732421875
-215.1132049560547 -60.72208023071289 110.49073791503906
-454.9718017578125 -149.53140258789062 243.02069091796875
-205.85313415527344 -50.85997772216797 104.53253173828125
-1070.1715087890625 -434.6369934082031 575.4422607421875
916.9336547851562 745.912109375 -721.9898071289062
-201.83384704589844 -52.47843933105469 102.36090087890625
-205.52645874023438 -50.83148956298828 104.33841705322266
-183.9347381591797 -45.734127044677734 93.13658905029297
-201.3179473876953 -52.4128532409668 102.13742065429688
-405.27288818359375 -133.22804260253906 216.24398803710938
-199.37466430664062 -52.71486282348633 101.0340805053711
-188.60475158691406 -46.74979019165039 93.3839340209961
-202.19285583496094 -50.35700225830078 102.65264129638672
587.4933471679688 451.9494934082031 -451.287109375
-202.03607177734375 -53.813232421875 102.55958557128906
-219.1920623779297 -60.52125549316406 113.1955337524414
-218.9723358154297 -61.560428619384766 113.30135345458984
-182.78933715820312 -45.35759353637695 90.32536315917969
-185.065185546875 -45.934730529785156 91.49501037597656
-212.85403442382812 -54.629722595214844 108.97844696044922
-210.19566345214844 -59.072425842285156 108.6617660522461
-3775.001708984375 -1957.6195068359375 2408.17236328125
-191.50625610351562 -47.36246871948242 94.6865234375
-224.14602661132812 -63.014461517333984 116.02799224853516
-196.87283325195312 -50.73922348022461 99.7318344116211
-201.53128051757812 -49.82330322265625 102.26963806152344
1430.3236083984375 1053.4859619140625 -1049.172119140625
-205.57205200195312 -51.116092681884766 104.38839721679688
-214.34652709960938 -60.57046890258789 110.1076431274414
-192.4976348876953 -47.72136306762695 95.2602310180664
-443.93035888671875 -137.8448944091797 231.65692138671875
-945.9308471679688 -384.43829345703125 508.34942626953125
-210.2091064453125 -53.16355895996094 107.08541107177734
-184.9429473876953 -45.58669662475586 91.33500671386719
-201.2794952392578 -51.918846130371094 102.02729034423828
-203.0025177001953 -55.93304443359375 104.63091278076172
-409.337158203125 -134.59629821777344 218.45848083496094
-218.16299438476562 -57.02778244018555 112.0547866821289
-219.2399444580078 -62.06819152832031 112.99723815917969
-673.1222534179688 -229.1422576904297 378.9451599121094
-199.9571533203125 -52.82444381713867 101.34359741210938
1479.0054931640625 1093.92626953125 -1085.1026611328125
-597.3355102539062 -209.10093688964844 299.7866516113281
-203.4787139892578 -50.692630767822266 103.32575988769531
-225.13101196289062 -59.83096694946289 115.88729858398438
-189.70980834960938 -49.29404067993164 96.0641098022461
-198.31610107421875 -51.05327606201172 100.46170043945312
-195.6327362060547 -51.72550582885742 99.08294677734375
-221.5972900390625 -61.25794982910156 113.07476806640625
-201.8444061279297 -53.346343994140625 102.29109191894531
-201.70242309570312 -51.85547637939453 102.20618438720703
-216.66201782226562 -54.55442428588867 109.8553237915039
-194.8834686279297 -49.03215026855469 98.54544830322266
-328.1485290527344 -96.44859313964844 172.18385314941406
-184.08055114746094 -45.68303680419922 91.09553527832031
-507.96649169921875 -166.62513732910156 252.8497314453125
838.7371215820312 604.9089965820312 -616.2320556640625
-203.7249298095703 -51.541812896728516 103.70531463623047
-203.59463500976562 -57.570411682128906 104.71376037597656
1715.1275634765625 1264.8768310546875 -1258.494140625
12977.5107421875 6710.21142578125 -8280.009765625
-194.99249267578125 -50.003746032714844 98.6651840209961
-192.38909912109375 -47.466819763183594 95.13229370117188
-207.79832458496094 -57.78719711303711 106.74163055419922
-212.5072479248047 -53.80388641357422 108.36792755126953
-508.1440124511719 -167.12684631347656 252.92251586914062
-196.96621704101562 -52.03950119018555 99.77528381347656
1541.705322265625 1135.9903564453125 -1130.8240966796875
-5916.6083984375 -2799.655517578125 3627.880615234375
-207.27099609375 -57.121761322021484 106.8987045288086
-1530.3453369140625 -826.6737670898438 972.1111450195312
-190.87374877929688 -51.29212951660156 96.90943145751953
-196.5723114013672 -55.060569763183594 101.36444854736328
-545.8446044921875 -179.44192504882812 271.9166259765625
-182.05706787109375 -45.20220947265625 90.07421875
-192.63441467285156 -47.682804107666016 95.42808532714844
-204.53509521484375 -53.86668395996094 103.74612426757812
-223.80662536621094 -62.10187530517578 115.63955688476562
-191.61236572265625 -47.50440216064453 94.81398010253906
877.7898559570312 720.5597534179688 -689.515869140625
-1537.19873046875 -835.857421875 979.3052978515625
-192.84576416015625 -47.62858963012695 95.31729125976562
-1543.9576416015625 -838.9961547851562 983.4388427734375
-206.18832397460938 -53.553653717041016 104.6478500366211
-536.9521484375 -185.6002655029297 298.82073974609375
-5838.29296875 -3163.8798828125 3721.338623046875
-226.43479919433594 -62.42141342163086 116.98332977294922
-199.71405029296875 -53.520721435546875 101.50106811523438
-201.5754852294922 -50.1771125793457 102.30890655517578
-230.26673889160156 -63.84487533569336 119.03142547607422
-202.22801208496094 -54.28217315673828 102.8290023803711
-219.22491455078125 -60.80820846557617 113.19962310791016
-216.97935485839844 -60.816123962402344 111.88058471679688
-197.21591186523438 -48.85493850708008 97.7573471069336
-956.7802124023438 -348.0790710449219 487.6116943359375
-197.06631469726562 -52.35905838012695 99.9160385131836
-198.72129821777344 -53.25627899169922 100.98019409179688
-16408.921875 -8493.1640625 10467.7138671875
2955.552001953125 1593.0169677734375 -1883.9014892578125
-196.24749755859375 -55.47012710571289 100.6259765625
-569.830810546875 -199.47296142578125 285.8432312011719
-212.12132263183594 -52.425758361816406 107.78488159179688
-203.19618225097656 -56.2248649597168 103.49266052246094
951.935791015625 687.4786376953125 -699.5628662109375
-199.46554565429688 -52.98588180541992 101.15607452392578
1477.925048828125 1079.421875 -1087.52880859375
-191.48109436035156 -47.25088882446289 94.65834045410156
-199.2813720703125 -49.27041244506836 101.11402893066406
180.42843627929688 114.19124603271484 -141.23890686035156
-226.47161865234375 -64.08303833007812 116.77022552490234
-909.7432861328125 -320.2050476074219 520.0562133789062
-3494748.75 -1652053.625 2143155.5
-211.7613067626953 -55.77374267578125 107.50349426269531
-183.91665649414062 -45.54857635498047 90.89017486572266
-191.74876403808594 -47.52976608276367 94.98147583007812
-356.77099609375 -101.87342071533203 172.1790008544922
658.9139404296875 508.1145935058594 -506.4373779296875
-188.16259765625 -46.4687385559082 95.3289566040039
-188.35415649414062 -46.549930572509766 93.07715606689453
-203.5626220703125 -56.04844284057617 104.91462707519531
-427.94415283203125 -122.15006256103516 207.1035614013672
-222.9521484375 -62.96759796142578 114.6237564086914
-1831.8837890625 -644.32666015625 1049.0836181640625
-206.52395629882812 -53.908721923828125 105.93414306640625
-193.0375518798828 -47.743892669677734 95.5477523803711
727.7967529296875 418.9381103515625 -501.6080322265625
-196.44528198242188 -55.20635986328125 101.07022857666016
-195.12062072753906 -50.660736083984375 98.86100006103516
-204.48464965820312 -51.71858596801758 104.15870666503906
-480.2181396484375 -157.67100524902344 238.9173126220703
-200.8639373779297 -55.88752746582031 103.10242462158203
916.880126953125 753.6538696289062 -720.4930419921875
-199.37762451171875 -51.8873291015625 101.11478424072266
-224.8044891357422 -58.74222183227539 115.52561950683594
-200.91831970214844 -56.90453338623047 103.35072326660156
-201.8853302001953 -49.80576705932617 100.1104507446289
-201.734619140625 -52.76298141479492 103.45818328857422
-190.50991821289062 -50.378597259521484 96.3975601196289
-202.76181030273438 -52.64543914794922 102.87227630615234
-204.20196533203125 -50.90017318725586 103.70690155029297
997.2771606445312 720.5185546875 -732.9325561523438
-203.11566162109375 -56.961143493652344 104.68156433105469
618.4814453125 500.1311950683594 -486.34735107421875
-233.90097045898438 -62.17969512939453 120.5013198852539
1376.913818359375 1020.3761596679688 -1008.7587280273438
-237.09600830078125 -66.98641967773438 122.04145812988281
-834.378173828125 -330.9211120605469 441.2627868652344
-720.6621704101562 -262.20062255859375 366.58587646484375
-208.34750366210938 -53.469337463378906 106.6285629272461
-206.29953002929688 -53.70903015136719 104.81083679199219
-206.09693908691406 -53.17847442626953 104.5421142578125
-3254.707275390625 -1541.91455078125 1995.7049560546875
-229.00808715820312 -59.85866165161133 117.74107360839844
1451.1630859375 1069.1552734375 -1064.3399658203125
-628.0203247070312 -250.17198181152344 341.7273864746094
-224.9961700439453 -57.79541015625 115.33583068847656
-1570.0615234375 -552.6300048828125 899.0987548828125
-438.4281311035156 -143.8848419189453 217.97735595703125
144.86215209960938 85.09170532226562 -110.25119018554688
-831.2909545898438 -307.0175476074219 424.06878662109375
-206.7327880859375 -54.83469772338867 106.20038604736328
-205.14434814453125 -50.95152282714844 101.866455078125
430.0036315917969 137.20628356933594 -239.85125732421875
-180.19766235351562 -47.605281829833984 91.04822540283203
-192.65911865234375 -47.4681282043457 95.46295166015625
142.04908752441406 83.31451416015625 -107.97034454345703
-480.7065734863281 -157.51490783691406 239.2667999267578
944.245849609375 552.6998901367188 -652.1610717773438
-401.2922668457031 -114.60509490966797 194.0713653564453
-213.1207275390625 -55.59135437011719 109.36893463134766
-202.40325927734375 -51.223602294921875 103.01502990722656
-1497.27783203125 -809.5781860351562 951.1461181640625
185.53341674804688 117.63018798828125 -145.33639526367188
-1387.68701171875 -488.02508544921875 793.8348999023438
-183.9935760498047 -47.79084396362305 93.07768249511719
-182.90377807617188 -45.34246826171875 90.47635650634766
-547.8584594726562 -185.85357666015625 272.64617919921875
-207.03077697753906 -54.966697692871094 106.3647689819336
-440.79547119140625 -144.63426208496094 219.1749267578125
-371.693603515625 -109.53208923339844 195.398681640625
-203.026611328125 -57.49126052856445 104.45035552978516
-672.4146118164062 -321.62115478515625 411.6559143066406
-5741.2685546875 -2974.815185546875 3662.445556640625
-11901.8349609375 -6418.4619140625 7573.078125
-188.39990234375 -46.36692810058594 93.13556671142578
-248.42543029785156 -69.72935485839844 128.8114013671875
-164.6728057861328 -40.0814094543457 80.31383514404297
5914.29248046875 3189.22998046875 -3771.1728515625
4355.10400390625 2247.927978515625 -2778.552490234375
-182.7163543701172 -45.19240951538086 90.2291030883789
1638.0421142578125 1207.9930419921875 -1201.65185546875
-191.75738525390625 -47.26319885253906 94.99636840820312
149.15382385253906 87.8160171508789 -113.53146362304688
-221.15518188476562 -58.55125427246094 114.65249633789062
-237.6593017578125 -66.7319107055664 122.8053207397461
-169.03590393066406 -41.708946228027344 85.35279083251953
-212.7994384765625 -57.175968170166016 108.32894134521484
-219.16075134277344 -53.597198486328125 107.84024047851562
-198.2039794921875 -54.77696228027344 100.87129211425781
-198.2333526611328 -46.83645248413086 99.63475036621094
-640.4805908203125 -233.28857421875 325.5035705566406
-196.33197021484375 -48.90523147583008 99.6124038696289
-221.37506103515625 -62.117462158203125 114.2134780883789
-199.98089599609375 -56.616661071777344 102.91667938232422
-184.7894744873047 -51.83517074584961 94.91877746582031
-171.852294921875 -41.88185501098633 83.94996643066406
-253.10751342773438 -69.89015197753906 131.09617614746094
-922.99462890625 -365.9929504394531 488.4195861816406
-195.78135681152344 -48.317623138427734 96.9113998413086
-195.96726989746094 -51.93625259399414 100.53199768066406
-201.65597534179688 -54.057777404785156 102.53083038330078
-934.3251953125 -344.7292175292969 477.1733093261719
165.01812744140625 103.72547912597656 -128.8765411376953
970.9468383789062 697.7627563476562 -714.4237670898438
-218.18186950683594 -62.38180160522461 112.06652069091797
1564.443115234375 1161.3128662109375 -1146.5565185546875
-242.47830200195312 -68.4965591430664 124.86518859863281
-174.423095703125 -43.20123291015625 86.09888458251953
-201.3822021484375 -52.39695358276367 102.24748992919922
665.593994140625 544.2990112304688 -522.3372802734375
-202.23370361328125 -55.9360237121582 103.28697967529297
-174.22833251953125 -43.045021057128906 85.90603637695312
-393.84930419921875 -112.39372253417969 190.1188201904297
-1346.18408203125 -473.8838806152344 770.7689208984375
142.78692626953125 83.79707336425781 -108.57129669189453
-184.89666748046875 -51.84815979003906 95.23460388183594
707.8245239257812 549.3151245117188 -542.3259887695312
-208.1566162109375 -58.978458404541016 107.16571044921875
-235.11094665527344 -66.65325927734375 121.4444580078125
-979.967529296875 -361.7041015625 500.3783264160156
-1121.374755859375 -444.9197998046875 594.0968017578125
-197.24362182617188 -48.62395477294922 97.7974853515625
666.5017700195312 513.9407958984375 -512.2279663085938
-815.0553588867188 -301.1311950683594 415.73382568359375
-613.6585083007812 -209.3539581298828 345.4932861328125
-1233.9945068359375 -433.7982482910156 705.6251220703125
-419.6393127441406 -142.47149658203125 208.14639282226562
-690.6184692382812 -235.23483276367188 388.9080810546875
-1335.16259765625 -705.1560668945312 829.3638305664062
-225.7157440185547 -63.369754791259766 116.61624145507812
-904.1837768554688 -333.1861267089844 461.5640563964844
-191.8489227294922 -52.448238372802734 97.56548309326172
-198.0045928955078 -48.42627716064453 97.13812255859375
-186.3639678955078 -45.53386306762695 91.25624084472656
-171.87472534179688 -42.534584045410156 84.79918670654297
29702.88671875 16049.373046875 -18946.779296875
-221.33522033691406 -57.7638053894043 113.69196319580078
-496.9563293457031 -164.0949249267578 247.13064575195312
-332.0837097167969 -94.08456420898438 159.9052734375
-193.13656616210938 -47.6021614074707 95.67263793945312
-190.75265502929688 -46.96305847167969 94.34152221679688
-945.2460327148438 -333.17926025390625 540.8572998046875
1147.090087890625 835.4556274414062 -843.367431640625
-214.6852264404297 -55.40395736694336 109.01023864746094
1539.9730224609375 719.3395385742188 -941.7167358398438
-1738.0546875 -616.1007690429688 997.893798828125
-1479.6466064453125 -524.1300048828125 849.1415405273438
-219.67031860351562 -58.32956314086914 113.01417541503906
718.0360107421875 518.5115966796875 -526.9442138671875
-712.0725708007812 -242.56332397460938 401.0223388671875
-1009.6876831054688 -344.2431335449219 569.75927734375
-219.4356231689453 -61.637107849121094 112.44961547851562
2477.56005859375 875.8544921875 -1426.1417236328125
-194.55923461914062 -54.20112609863281 99.79862976074219
-228.8839569091797 -60.67803192138672 118.77916717529297
-510.791259765625 -167.4202880859375 254.4283447265625
-684.06640625 -238.4899139404297 365.6507873535156
-193.41563415527344 -47.93001937866211 95.84746551513672
-260.521484375 -73.21488952636719 134.8447265625
-209.02731323242188 -50.9627571105957 102.68567657470703
-212.02462768554688 -59.44313049316406 109.36141204833984
156.09378051757812 92.20547485351562 -118.9107666015625
1363.316650390625 1010.9906616210938 -999.0086669921875
-574.6508178710938 -190.369384765625 286.2511901855469
19.21956443786621 5.843540668487549 -12.657100677490234
-207.091796875 -51.10063552856445 102.79608154296875
-1884.77099609375 -667.6171875 1082.1917724609375
47.45783996582031 27.77113914489746 -33.913272857666016
-171.9126434326172 -42.281532287597656 84.8542251586914
-455.14208984375 -156.85963439941406 254.9230499267578
-222.12496948242188 -60.22300338745117 114.73161315917969
-1198.6441650390625 -475.4295654296875 635.1949462890625
-4349.32958984375 -1538.5418701171875 2499.184326171875
18.242671966552734 5.260843753814697 -12.00230598449707
1581.8902587890625 543.29931640625 -897.1577758789062
-642.023193359375 -222.4703826904297 357.9905090332031
-306.12445068359375 -77.19810485839844 153.58697509765625
-306.01983642578125 -77.03506469726562 153.5135040283203
-292.60784912109375 -74.72860717773438 150.3542938232422
-606.734375 -210.20974731445312 338.2694091796875
-714.400634765625 -222.64064025878906 374.8599548339844
-566.5723266601562 -158.72010803222656 292.1014099121094
182.3642120361328 117.80030059814453 -143.92269897460938
-4440.251953125 -1802.3172607421875 2398.161376953125
-557.9243774414062 -184.06640625 299.1087646484375
-299.45916748046875 -78.59700012207031 153.5023956298828
-322.70367431640625 -90.71949005126953 167.51959228515625
-310.3018798828125 -86.31343841552734 161.58497619628906
-314.8196105957031 -82.80152893066406 161.44186401367188
-294.37274169921875 -73.63886260986328 150.91607666015625
649.554931640625 506.181396484375 -493.4057312011719
-317.06317138671875 -81.15036010742188 163.15057373046875
-3021.20166015625 -1227.871826171875 1631.26513671875
-299.5765380859375 -78.81489562988281 153.58169555664062
177.85122680664062 114.64320373535156 -140.24151611328125
-572.7184448242188 -160.52528381347656 295.27105712890625
-298.7546691894531 -74.90019226074219 149.6162567138672
-287.3343811035156 -72.21839141845703 147.23008728027344
-293.21185302734375 -83.39226531982422 151.8603973388672
-310.5480651855469 -86.76798248291016 161.69708251953125
-278.0703430175781 -72.96379089355469 142.30853271484375
-305.71319580078125 -79.22005462646484 157.91976928710938
-294.29461669921875 -73.49571228027344 150.8289794921875
-1476.038818359375 -486.9473876953125 741.8284301757812
-6658.26513671875 -3146.47705078125 4076.85888671875
-318.0035400390625 -88.28247833251953 165.59231567382812
565.1097412109375 458.6501770019531 -445.43817138671875
-505.3854064941406 -175.2604217529297 281.42645263671875
-283.4419860839844 -74.487548828125 145.15899658203125
-1566.078125 -515.1902465820312 787.25244140625
-707.4300537109375 -233.05491638183594 379.780029296875
640.6763916015625 496.5531311035156 -493.8843994140625
-795.7555541992188 -262.22430419921875 427.4856262207031
830.721923828125 611.5462646484375 -610.4113159179688
-311.5362243652344 -88.68885803222656 161.51596069335938
-1034.958251953125 -340.60894775390625 519.64892578125
1526.4383544921875 502.83953857421875 -773.3677368164062
-309.80279541015625 -79.17829895019531 159.33843994140625
560.83447265625 459.82366943359375 -440.94232177734375
-5459.15869140625 -2217.5048828125 2949.50048828125
-707.3233642578125 -237.70553588867188 382.9176940917969
-2524.20166015625 -1004.0265502929688 1382.171875
-299.6213073730469 -78.8199234008789 153.73641967773438
-2603.25 -1058.142333984375 1405.365234375
-319.1894226074219 -90.35350799560547 166.58819580078125
-296.4844970703125 -74.43589782714844 148.536865234375
-1568.8822021484375 -516.0050659179688 789.091796875
492.67633056640625 379.8296203613281 -379.2385559082031
-319.5603332519531 -88.71891784667969 166.41493225097656
-569.1444091796875 -191.62753295898438 307.6014404296875
-350.4803466796875 -87.87271881103516 180.1117401123047
-288.6185607910156 -74.98348999023438 147.6902618408203
-297.8813171386719 -74.61019134521484 149.24282836914062
1650.233154296875 568.6571655273438 -940.1936645507812
-324.3258972167969 -91.831787109375 169.31918334960938
567.3036499023438 408.9063415527344 -417.53192138671875
-313.00604248046875 -79.67196655273438 160.20391845703125
-322.1504211425781 -81.3089370727539 161.7642059326172
-1049731.75 -416355.8125 559325.875
-541.3345336914062 -187.51055908203125 301.6153259277344
-657.163330078125 -216.52586364746094 352.5970764160156
655.12890625 510.6626892089844 -503.28350830078125
-315.91680908203125 -79.12773132324219 162.12770080566406
-296.3692932128906 -74.24801635742188 148.4547576904297
-322.4542541503906 -84.91357421875 165.5104522705078
-8359.779296875 -3090.8466796875 4298.5615234375
-3583.577880859375 -1217.91650390625 1803.421630859375
-316.2453308105469 -89.48026275634766 165.01705932617188
277.60723876953125 88.63885498046875 -155.87721252441406
767.8161010742188 564.7315063476562 -564.0340576171875
-324.412109375 -90.5179443359375 167.1109161376953
-1700.9659423828125 -561.612548828125 855.2645263671875
-330.7956237792969 -83.44161987304688 169.90052795410156
-3517.7275390625 -1898.625244140625 2237.658447265625
-365.2654724121094 -103.24105072021484 190.8385772705078
-310.2961120605469 -87.8421630859375 161.8914794921875
-321.87371826171875 -80.98836517333984 161.52223205566406
-317.63116455078125 -88.70159912109375 163.599853515625
-295.2252502441406 -74.14956665039062 148.1331024169922
51999.703125 20595.470703125 -27701.52734375
856.3699340820312 517.217529296875 -602.2860717773438
-293.2127380371094 -75.9344253540039 151.35302734375
2011.7916259765625 693.728515625 -1145.854736328125
-283.35186767578125 -71.34326934814453 145.1873321533203
-279.3283386230469 -70.30418395996094 143.08055114746094
-320.1793518066406 -83.52208709716797 164.1845703125
-624.3513793945312 -209.94329833984375 337.6622009277344
-320.6210632324219 -90.59180450439453 166.98519897460938
6072.29736328125 3146.359130859375 -3879.65869140625
-315.7730407714844 -84.44830322265625 161.9062042236328
2584.8369140625 1336.538818359375 -1651.563720703125
-307.5292663574219 -81.10169982910156 159.2892608642578
-305.402587890625 -76.97032165527344 156.64500427246094
-320.2817077636719 -90.67526245117188 166.67967224121094
-273.3056945800781 -77.79754638671875 141.4051971435547
-1970.6229248046875 -648.7290649414062 991.5284423828125
565.0010986328125 427.7198181152344 -434.9962158203125
-290.5570373535156 -76.21855926513672 148.8627471923828
825.3412475585938 610.032470703125 -606.5399780273438
-292.6439208984375 -74.78913879394531 150.474365234375
440.0527648925781 358.53802490234375 -345.50006103515625
-281.5135192871094 -72.85523223876953 145.20620727539062
10938.27734375 4334.24462890625 -5829.60546875
-334.8792419433594 -84.40684509277344 168.29037475585938
-332.82086181640625 -94.99899291992188 173.28518676757812
-295.7969970703125 -78.86323547363281 154.38107299804688
-286.1219177246094 -79.42162322998047 148.78103637695312
-1930.851806640625 -917.6861572265625 1184.568359375
-301.68426513671875 -76.02547454833984 151.46766662597656
-290.7020263671875 -76.43370056152344 149.0792999267578
-1426.65771484375 -469.527099609375 717.0079956054688
-1540.979736328125 -523.7030029296875 773.8046875
595.547119140625 439.3738098144531 -463.4426574707031
-300.4076232910156 -85.00758361816406 155.220458984375
-318.55755615234375 -89.392333984375 165.32534790039062
793.296142578125 586.150634765625 -582.9763793945312
8188.54541015625 4244.9453125 -5231.97607421875
-5200.11181640625 -2825.990478515625 3319.19287109375
583.2741088867188 478.0977478027344 -458.6578369140625
-27917.37109375 -10168.1083984375 14335.107421875
-315.559814453125 -88.1999740600586 164.37559509277344
2477.55712890625 1339.39013671875 -1581.6275634765625
-298.9873352050781 -75.06189727783203 149.9354705810547
-3392.226806640625 -1116.85205078125 1710.144775390625
-369.1119079589844 -94.281982421875 189.39846801757812
561.6741943359375 460.28289794921875 -441.6607971191406
-716.6145629882812 -236.05853271484375 384.6660461425781
-806.4835205078125 -251.2636260986328 423.5578918457031
-595.8435668945312 -205.47857666015625 334.6495666503906
-323.26611328125 -86.43209075927734 165.8101348876953
-323.7856140136719 -92.4215316772461 168.40792846679688
-483.147705078125 -142.93905639648438 255.10415649414062
-313.8545227050781 -78.5850601196289 161.04995727539062
-1691.0799560546875 -556.2708740234375 850.3528442382812
-678.8067626953125 -234.0037078857422 381.4468994140625
3246.730224609375 1680.24072265625 -2074.495361328125
1664.852783203125 898.2013549804688 -1062.8133544921875
-308.3087158203125 -82.60371398925781 159.9156951904297
-268.6543884277344 -67.21978759765625 137.43521118164062
2057.7265625 709.25 -1171.93798828125
-300.25445556640625 -80.1563491821289 153.8326416015625
-326.89202880859375 -91.67184448242188 169.70468139648438
-2922.08154296875 -1024.4034423828125 1480.8021240234375
-286.2481689453125 -71.78450012207031 143.293701171875
-291.9498291015625 -81.35904693603516 150.1413116455078
-363.0902404785156 -90.383544921875 181.07618713378906
-344.714111328125 -92.29998779296875 176.95802307128906
-365.3445129394531 -103.58665466308594 190.4739227294922
-309.0918273925781 -85.65996551513672 160.8727264404297
-697.8290405273438 -240.63978576660156 392.65899658203125
-291.1585693359375 -77.42115783691406 149.13133239746094
-300.75274658203125 -85.49299621582031 155.813232421875
544.0367431640625 415.9324035644531 -415.6549987792969
-4481.76171875 -1571.3118896484375 2272.69140625
-326.12884521484375 -85.84445190429688 167.3940887451172
-762.683837890625 -266.8299865722656 408.6183166503906
-6685.20068359375 -3630.371337890625 4266.33984375
-325.1666259765625 -90.32633209228516 169.38418579101562
-282.2010192871094 -80.25050354003906 146.08111572265625
-272.1894836425781 -75.52249908447266 141.42405700683594
-311.11822509765625 -81.89202880859375 159.6050567626953
-306.06396484375 -76.93657684326172 153.66653442382812
-327.58819580078125 -92.64424133300781 170.71163940429688
-321.8878173828125 -84.00921630859375 165.07965087890625
-320.6282653808594 -90.63985443115234 166.8620147705078
494.0911560058594 380.8388671875 -380.31317138671875
-330.4228820800781 -82.80143737792969 169.6798095703125
-361.1031188964844 -103.01053619384766 188.0574493408203
175.59951782226562 113.22826385498047 -138.5211944580078
-7864.02392578125 -4265.76708984375 5018.12744140625
-359.7371826171875 -95.13915252685547 186.77406311035156
-312.8065185546875 -88.3348617553711 162.72396850585938
-297.3019104003906 -83.94300079345703 154.54461669921875
512.6875610351562 391.3975524902344 -405.344482421875
-331.9923095703125 -83.75463104248047 166.87966918945312
1362.19775390625 643.5565185546875 -837.302001953125
-281.3415832519531 -78.49773406982422 146.2703857421875
2525.56689453125 1360.941162109375 -1609.6695556640625
2141.869140625 1149.9185791015625 -1363.277099609375
-311.64349365234375 -88.82373809814453 161.98475646972656
-370.6000061035156 -96.39161682128906 190.28948974609375
7113.66650390625 2626.519775390625 -3664.373046875
-298.0630187988281 -74.55850219726562 149.6266632080078
-5152.03955078125 -1805.345947265625 2612.951171875
-6704.0166015625 -2660.041259765625 3569.707275390625
-306.287841796875 -77.25477600097656 153.84689331054688
-309.6822509765625 -77.615478515625 155.25746154785156
-307.9383239746094 -76.50736999511719 153.11434936523438
711.8616333007812 465.81195068359375 -511.0185546875
-4960.0126953125 -2683.79736328125 3160.40234375
-333.1658935546875 -83.99695587158203 167.56382751464844
-321.2001037597656 -91.67259216308594 167.04029846191406
-1783.105712890625 -586.5994262695312 897.2606201171875
148.50389099121094 89.36852264404297 -113.98377227783203
-290.5469665527344 -78.70909881591797 149.18861389160156
-3611.76123046875 -1908.74462890625 2247.322509765625
-319.13507080078125 -80.09120178222656 159.99209594726562
-8761.9990234375 -3190.806396484375 4497.4921875
-697.5320434570312 -240.4058380126953 392.1332702636719
-290.2325744628906 -75.61759185791016 148.60997009277344
-2486.02978515625 -822.9174194335938 1250.576904296875
-855.2446899414062 -298.97967529296875 458.477294921875
-319.0644836425781 -90.19125366210938 166.18136596679688
717.4953002929688 527.4335327148438 -527.0156860351562
37934.953125 14019.712890625 -19521.046875
-332.20684814453125 -93.97118377685547 173.0006561279297
-344.4228515625 -98.40375518798828 179.3050994873047
27804.87109375 10279.248046875 -14309.6162109375
-289.72564697265625 -78.39827728271484 148.7496795654297
-540.9918212890625 -186.6367950439453 303.6923522949219
156.24046325683594 94.3036117553711 -120.01134490966797
-4221.47509765625 -2292.02734375 2696.323974609375
-284.01068115234375 -74.77545928955078 146.89227294921875
-280.57568359375 -74.66911315917969 146.29718017578125
-291.14129638671875 -72.76579284667969 149.22682189941406
980.4775390625 576.1410522460938 -678.427978515625
-2079.10302734375 -690.8125610351562 1045.5875244140625
-309.4953918457031 -83.8125 159.07838439941406
-4117.88720703125 -1520.66357421875 2116.566650390625
-292.5661315917969 -83.18798065185547 151.51806640625
-312.5162658691406 -83.40644836425781 163.27593994140625
2324.146240234375 801.5208740234375 -1323.6162109375
1150.774169921875 409.6492614746094 -665.1405639648438
-342.2419128417969 -86.06421661376953 171.84242248535156
-291.0189208984375 -72.73748779296875 145.79733276367188
-267.80413818359375 -67.29629516601562 134.1802215576172
-284.6032409667969 -76.109375 147.41641235351562
2066.40966796875 1067.200927734375 -1320.3212890625
-270.78448486328125 -72.40261840820312 140.14569091796875
-361.0581970214844 -98.16717529296875 186.02401733398438
-298.1876220703125 -75.03117370605469 149.50909423828125
-1393.4505615234375 -458.0015563964844 700.6024169921875
156.6280059814453 94.55339813232422 -120.3093032836914
-296.9909973144531 -78.99913787841797 152.1573028564453
-1140.3416748046875 -398.6689453125 612.0824584960938
-274.8366394042969 -72.30963897705078 142.0632781982422
-298.77783203125 -74.732177734375 149.787841796875
-286.93206787109375 -81.05814361572266 149.0894012451172
-1793.4241943359375 -852.4210205078125 1100.2139892578125
795.2703857421875 585.42041015625 -584.2674560546875
-972.7736206054688 -280.2537841796875 476.2395324707031
-336.3942565917969 -84.6776351928711 168.921875
-323.75518798828125 -81.71662139892578 166.26800537109375
-3206.960693359375 -1275.2659912109375 1756.6986083984375
-289.6600036621094 -71.86626434326172 143.8551483154297
-317.4694519042969 -85.06459045410156 164.75213623046875
-289.6252136230469 -71.79053497314453 143.83995056152344
157.23028564453125 94.96208190917969 -120.81622314453125
-408.13031005859375 -115.57536315917969 213.5769805908203
-2405.260986328125 -1268.9796142578125 1495.24365234375
527.343017578125 379.3708190917969 -387.96038818359375
-306.6352233886719 -77.32305145263672 157.3352508544922
666.789306640625 517.1611328125 -513.9878540039062
-308.11541748046875 -83.41451263427734 158.33677673339844
-3336.266845703125 -1216.2435302734375 1710.8072509765625
-9794.2900390625 -5308.25244140625 6253.5322265625
-502.6551513671875 -148.7363739013672 265.51287841796875
-642.9880981445312 -221.79452514648438 361.7009582519531
-964.32568359375 -277.76617431640625 472.00653076171875
-330.61895751953125 -83.10690307617188 166.0825653076172
647.3648681640625 501.8562927246094 -498.94488525390625
-323.27642822265625 -80.37150573730469 160.8645782470703
-1526.73828125 -501.9375305175781 767.8702392578125
-583.5079345703125 -201.26918029785156 327.6109313964844
-280.1492004394531 -70.00115966796875 140.45550537109375
728.9976196289062 539.4807739257812 -534.89697265625
865.6752319335938 631.7586059570312 -637.7857055664062
-326.7950744628906 -82.3048324584961 164.27667236328125
-957.47021484375 -274.42108154296875 468.13604736328125
1645.426513671875 776.6331787109375 -1011.411865234375
-268.3879089355469 -67.43280029296875 134.48391723632812
-292.3251647949219 -73.11222839355469 146.67051696777344
-280.61968994140625 -79.77518463134766 145.23509216308594
-254.65391540527344 -68.94762420654297 130.44761657714844
-10974.716796875 -4049.897216796875 5645.1494140625
-326.4024658203125 -87.1370849609375 170.658935546875
-304.27496337890625 -80.04774475097656 157.5072021484375
-841.9761962890625 -267.56280517578125 442.11944580078125
-981.0364379882812 -282.3951721191406 479.61090087890625
-282.0999450683594 -74.20301055908203 145.85520935058594
700.7950439453125 510.4009094238281 -516.3430786132812
-298.4253234863281 -79.58238220214844 155.8115234375
1290.834228515625 459.3802490234375 -745.5526733398438
-288.476318359375 -72.12989044189453 144.64344787597656
-11235.4228515625 -4154.064453125 5778.25439453125
-293.9018249511719 -77.32343292236328 152.05499267578125
3514.197998046875 1279.1217041015625 -1807.6943359375
-342.43304443359375 -85.87824249267578 172.2397003173828
-328.6105041503906 -88.05066680908203 170.61392211914062
3243.198974609375 1752.57763671875 -2071.711669921875
4013.634765625 1589.7745361328125 -2140.71484375
1387.923828125 498.0327453613281 -804.14794921875
2549.655029296875 908.915771484375 -1472.4193115234375
-805.2568969726562 -428.1534729003906 500.707763671875
-338.37982177734375 -83.92598724365234 168.51683044433594
-287.25958251953125 -72.30050659179688 143.9739227294922
1348.3089599609375 465.208984375 -768.799072265625
5.247387409210205 -4.627371311187744 -1.8866435289382935
3947.270751953125 1361.5078125 -2247.00830078125
-926.86865234375 -265.177490234375 453.23773193359375
-307.2796936035156 -82.26069641113281 159.37899780273438
-1407.6856689453125 -513.7637939453125 720.23046875
-319.43914794921875 -81.80126190185547 164.3874969482422
-340.56658935546875 -86.13726806640625 171.2374725341797
-286.255859375 -71.53787994384766 143.54600524902344
-564.6129760742188 -301.06231689453125 350.8133544921875
-291.9261779785156 -72.9759292602539 146.41468811035156
-310.180908203125 -87.67219543457031 161.50868225097656
-394.1156311035156 -97.99124908447266 196.7270965576172
1242.6275634765625 910.3507080078125 -916.1829833984375
-1055.31689453125 -443.5291442871094 624.5672607421875
-12231.455078125 -4228.02685546875 6959.1494140625
-1704.369384765625 -564.0156860351562 856.9782104492188
1409.5970458984375 502.3299560546875 -814.8555908203125
28.988117218017578 8.795248031616211 -17.644014358520508
1112.74609375 399.3003234863281 -645.0361328125
-6274.25927734375 -3402.720703125 4004.898681640625
-608.5570678710938 -155.89364624023438 308.9241943359375
5219.7998046875 1810.331787109375 -2927.37646484375
-608.3389892578125 -155.54672241210938 308.6275634765625
1830.1737060546875 742.078857421875 -992.1192016601562
-1809.72998046875 -510.58245849609375 939.456298828125
-612.6007690429688 -162.93092346191406 317.1395263671875
-613.607177734375 -155.88113403320312 317.7684631347656
-1276.6907958984375 -421.5332336425781 687.614990234375
-591.3306884765625 -165.70921325683594 310.3595886230469
1550.7674560546875 628.4359130859375 -840.8230590820312
-617.2354736328125 -162.62083435058594 319.1534729003906
-14420.8544921875 -4760.025390625 7284.87158203125
-1066.820556640625 -370.0663757324219 595.8764038085938
-612.5706787109375 -163.29342651367188 317.1600036621094
-612.1051635742188 -165.4639892578125 316.7149353027344
-588.3585205078125 -150.2835693359375 298.2667236328125
-590.3558349609375 -169.57501220703125 308.67010498046875
-615.9014282226562 -172.9929656982422 323.4772033691406
-615.3858642578125 -175.86094665527344 322.9300231933594
-608.4710693359375 -155.3665771484375 308.7523193359375
-608.6777954101562 -154.82240295410156 308.92999267578125
-607.8486938476562 -155.12693786621094 307.99700927734375
-612.7572631835938 -174.97232055664062 322.39617919921875
-587.9197998046875 -149.84548950195312 297.72796630859375
-513.9368286132812 -136.6439666748047 265.5837097167969
50513.1796875 16708.62890625 -27298.880859375
-607.8489379882812 -154.76852416992188 307.9619445800781
1696.5970458984375 618.6967163085938 -874.9326171875
-628.3400268554688 -158.25631713867188 315.9727478027344
2545.483642578125 2125.112548828125 -2013.5013427734375
-2256.814697265625 -705.571533203125 1190.146484375
-590.3143920898438 -166.30145263671875 306.59130859375
-494.72930908203125 -125.2186279296875 255.63394165039062
-612.22021484375 -164.94580078125 316.8460388183594
2337.791748046875 774.0914916992188 -1183.640625
2190.81298828125 1133.27978515625 -1400.051513671875
3387.102783203125 1153.873779296875 -1711.8104248046875
-1328.9530029296875 -394.2588195800781 706.1046752929688
-2400.764404296875 -831.6226196289062 1343.7802734375
-705.92822265625 -191.20254516601562 365.6315002441406
-591.0291748046875 -168.49668884277344 310.78851318359375
-617.3765869140625 -159.3784637451172 318.9757385253906
-514.2115478515625 -134.9066619873047 265.4112854003906
-514.7156982421875 -132.1765594482422 265.53338623046875
-608.07666015625 -155.73880004882812 308.33673095703125
-612.0904541015625 -175.6754913330078 320.0673828125
1250.1217041015625 560.0339965820312 -706.1640014648438
-613.7427368164062 -159.11524963378906 318.7515563964844
-1500.9163818359375 -423.46356201171875 778.6497802734375
-637.7571411132812 -183.6435546875 334.4844970703125
-637.998779296875 -180.69061279296875 333.9483947753906
-12734.79296875 -4199.89501953125 6428.31494140625
-591.0874633789062 -159.80706787109375 305.7200927734375
-591.1954345703125 -166.76071166992188 310.4178161621094
-493.7262878417969 -129.8189239501953 254.8162841796875
-613.6019897460938 -155.85743713378906 317.7972412109375
1640.120849609375 665.407470703125 -889.4635620117188
5575.201171875 1850.864501953125 -2816.522705078125
-608.0665283203125 -155.47279357910156 308.29266357421875
-612.2529907226562 -176.27975463867188 321.0364685058594
1389.0673828125 563.3408203125 -753.6398315429688
1174.2559814453125 476.00921630859375 -637.3825073242188
-2897.574951171875 -956.5110473632812 1563.0316162109375
-638.441650390625 -163.37643432617188 330.7616882324219
321.6820068359375 215.65538024902344 -257.4573974609375
2168.953125 1173.3272705078125 -1384.9375
1405.0357666015625 519.3390502929688 -726.4847412109375
39981.30859375 13943.904296875 -22825.43359375
-492.187744140625 -138.47726440429688 258.0108642578125
-16657.958984375 -5497.83447265625 8416.2099609375
-735.683349609375 -207.51173400878906 382.7056884765625
-610.8521728515625 -155.5103759765625 309.8946228027344
-514.6197509765625 -132.64891052246094 265.46240234375
-512.6353759765625 -143.8822021484375 265.8883056640625
1716.7340087890625 680.77685546875 -917.6209106445312
-613.9376831054688 -159.1624298095703 318.8625793457031
-608.9857177734375 -155.98052978515625 309.1282958984375
300.4248962402344 200.85108947753906 -240.17657470703125
-613.5174560546875 -156.9017333984375 317.78173828125
-613.9463500976562 -161.1594696044922 320.0151062011719
9497.0849609375 3201.14404296875 -5173.6923828125
-532.7470703125 -141.7254638671875 275.4627685546875
-137419.75 -74528.359375 87717.2578125
-590.8335571289062 -168.5374755859375 309.9592590332031
-1980.1639404296875 -653.5160522460938 1067.507080078125
293.0787658691406 196.09169006347656 -234.40403747558594
-610.6324462890625 -155.75038146972656 309.648681640625
-617.3543701171875 -164.4534454345703 319.5294189453125
-513.4093017578125 -143.97665405273438 269.24530029296875
-513.2657470703125 -140.57791137695312 265.8435974121094
-613.0762939453125 -171.59228515625 321.8426513671875
-612.244873046875 -176.3397216796875 321.0382385253906
-608.2313842773438 -154.879150390625 308.16510009765625
-612.5740966796875 -174.59765625 321.38665771484375
-604.5274047851562 -152.63221740722656 303.8647155761719
-512.4100952148438 -132.5999298095703 265.571533203125
3312.90966796875 1092.7794189453125 -1676.77685546875
-637.5740356445312 -168.5008087158203 329.9507141113281
-18172.22265625 -6132.1298828125 10016.48046875
303.4266662597656 202.97195434570312 -242.6444091796875
275.96539306640625 173.64137268066406 -215.18399047851562
-615.77685546875 -173.7006378173828 323.3768310546875
-512.8511352539062 -146.35421752929688 268.69696044921875
-524.4398193359375 -150.28138732910156 273.8692321777344
-611.7591552734375 -172.55780029296875 317.87701416015625
-612.5808715820312 -162.9192352294922 317.12506103515625
-2958.51904296875 -976.5379638671875 1595.823974609375
4551.8525390625 1506.349853515625 -2301.830078125
-612.7340698242188 -163.32489013671875 317.5064392089844
-2905.6220703125 -1006.53857421875 1627.02197265625
-637.5722045898438 -183.1659393310547 333.5386047363281
1194.7510986328125 473.5267333984375 -639.326171875
-628.2357177734375 -158.69827270507812 315.9029846191406
-632.3740844726562 -161.4759063720703 320.52508544921875
-637.3987426757812 -174.6923828125 330.7608337402344
-532.1541748046875 -149.9720001220703 279.17584228515625
-699.8713989257812 -179.17645263671875 355.43212890625
4501.27392578125 3359.690185546875 -3319.777587890625
-620.6113891601562 -170.5628204345703 326.4856262207031
-1980.3580322265625 -666.3606567382812 1076.350830078125
-604.5528564453125 -152.60328674316406 303.85516357421875
-608.2562866210938 -155.32435607910156 308.2425842285156
247.8669891357422 155.2705078125 -192.91514587402344
-511.10699462890625 -137.98338317871094 264.012451171875
-637.0310668945312 -179.668701171875 331.0643005371094
3038.7177734375 2540.2490234375 -2405.039794921875
-640.1137084960938 -162.6754608154297 331.58489990234375
-532.9252319335938 -140.52613830566406 275.34722900390625
-531.3959350585938 -149.55331420898438 275.7132263183594
-587.6973266601562 -149.33543395996094 298.0806884765625
-592.4545288085938 -151.3275146484375 306.723876953125
-725.1109619140625 -185.10455322265625 367.7452392578125
-16496.361328125 -5450.6025390625 8329.2666015625
-493.8181457519531 -131.56051635742188 258.3955993652344
-734.52783203125 -199.01425170898438 380.5198059082031
-616.4729614257812 -157.89804077148438 313.0444641113281
-608.3804931640625 -154.69627380371094 308.80010986328125
3096.322021484375 2454.507080078125 -2364.695068359375
2921.895751953125 2442.171875 -2312.128173828125
-608.9093627929688 -155.46005249023438 308.9856872558594
-30215.076171875 -10533.1572265625 17244.654296875
-612.5663452148438 -174.65789794921875 321.38861083984375
2581.4658203125 2044.1826171875 -1992.748291015625
4558.5673828125 1504.7373046875 -2305.360107421875
1781.5721435546875 625.638671875 -908.2130737304688
1116.7213134765625 918.2753295898438 -884.1279907226562
-709.262451171875 -198.93807983398438 372.73406982421875
-707.1213989257812 -181.1405487060547 366.6112060546875
-11238.5390625 -3714.237060546875 5673.8388671875
-592.4007568359375 -159.59259033203125 311.8592834472656
1953.805908203125 713.2886352539062 -1007.20751953125
-719.4581909179688 -181.70297241210938 362.22052001953125
-6107.51513671875 -2130.58544921875 3485.47900390625
-61244.875 -31749.3515625 39122.41015625
41318.62109375 13931.97265625 -22497.654296875
-739.4591064453125 -199.461669921875 389.8190612792969
-618.3618774414062 -157.164306640625 320.1158142089844
-613.1043090820312 -163.4006805419922 317.44873046875
1111.0067138671875 410.4815368652344 -575.0057373046875
-633.026123046875 -162.0387725830078 321.2701416015625
